ply
format ascii 1.0
element vertex 746
property float x
property float y
property float z
property float nx
property float ny
property float nz
property uchar red
property uchar green
property uchar blue
end_header
-0.13 0.56 0.0061077666 -0.030887213 0.0072972532 -0.9994962 14 16 31
-0.13 0.57 0.0060439203 -0.0135293575 0.024092691 -0.9996182 15 17 31
-0.13 0.58 0.006756448 -0.02017189 0.035762515 -0.9991567 14 16 30
-0.13 0.59 0.0064533693 0.02661421 -0.02739622 -0.9992703 13 16 29
-0.13 0.6 0.0067336317 -0.006711828 -0.03621465 -0.9993215 14 17 28
-0.13 0.61 0.005449977 -0.050571546 -0.020460768 -0.99851084 17 21 33
-0.13 0.62 0.006264073 0.05668995 0.028310297 -0.99799037 16 20 32
-0.13 0.63 0.0060059316 0.027246526 0.0017669075 -0.9996272 17 21 35
-0.13 0.64 0.0061057913 0.016158225 0.03142293 -0.9993756 17 22 38
-0.13 0.65 0.006893197 -0.049592048 0.00030487898 -0.9987695 18 23 42
-0.13 0.66 0.0058137965 -0.040883042 -0.04361516 -0.99821156 18 23 43
-0.13 0.67 0.006310395 0.03113184 -0.020539144 -0.99930423 21 27 47
-0.13 0.68 0.005518533 -0.028068602 0.0026773296 -0.99960244 21 28 47
-0.13 0.69 0.00624852 0.026599983 0.10438415 -0.9941813 20 27 46
-0.13 0.7 0.007627514 -0.045575086 -0.049617365 -0.99772793 20 26 43
-0.13 0.71 0.0062170234 0.030139867 -0.027297357 -0.99917287 20 24 38
-0.13 0.72 0.0063321507 0.012401074 -0.064376056 -0.99784863 17 20 32
-0.13 0.73 0.005437857 -0.0519922 -0.0034120902 -0.99864167 18 21 33
-0.13 0.74 0.006222077 0.060123287 0.07734863 -0.9951896 18 21 33
-0.12 -0.75 0.00501642 0.0024776168 0.024265405 -0.99970245 67 94 155
-0.12 -0.74 0.005250473 0.06839512 0.040877648 -0.9968205 73 102 166
-0.12 -0.73 0.0058611957 0.034695238 -0.019940436 -0.999199 76 105 171
-0.12 -0.72 0.005050949 -0.037074186 -0.019771375 -0.9991169 69 97 167
-0.12 -0.71 0.0053761275 -0.04769173 0.015480554 -0.99874216 59 89 162
-0.12 -0.7 0.0054203887 -0.121463895 0.06976085 -0.9901414 51 80 155
-0.12 -0.69 0.0069732424 -0.14943567 0.054014318 -0.98729503 40 66 134
-0.12 -0.68 0.006870988 -0.03468902 0.052560814 -0.99801505 39 65 134
-0.12 -0.67 0.0077268984 -0.0014601689 -0.010623967 -0.9999425 38 65 135
-0.12 -0.66 0.0075568017 0.05685013 -0.026726963 -0.99802494 42 69 140
-0.12 -0.65 0.006783951 -0.003632275 -0.06383866 -0.9979536 40 65 135
-0.12 -0.64 0.0067340583 0.020625263 0.024963647 -0.9994756 49 74 144
-0.12 -0.63 0.0070237215 0.008497644 0.10189355 -0.994759 49 74 143
-0.12 -0.62 0.008314375 -0.037439574 -0.04596625 -0.9982411 49 72 138
-0.12 -0.61 0.007310538 0.0052234344 -0.06420278 -0.9979232 39 60 122
-0.12 -0.6 0.0070147794 -0.0028180173 -0.008692056 -0.9999583 34 54 112
-0.12 -0.59 0.0073576956 0.019502856 0.024411563 -0.9995117 35 50 100
-0.12 -0.58 0.007054003 -0.035594575 -0.012314548 -0.99929047 35 48 97
-0.12 -0.57 0.0070936107 -0.025064765 0.023844788 -0.9994014 38 51 98
-0.12 -0.56 0.007475378 0.005736417 0.016806277 -0.9998423 39 51 99
-0.12 -0.55 0.007562929 0.012653469 0.010901642 -0.9998605 36 49 99
-0.12 -0.54 0.007380577 0.052009244 -0.0500658 -0.9973908 35 49 100
-0.12 -0.53 0.0073516457 -0.033141777 0.02070387 -0.99923617 33 49 105
-0.12 -0.52 0.0074557466 0.06837992 0.027407384 -0.9972828 39 54 108
-0.12 -0.51 0.0073410627 -0.031955935 -0.018173778 -0.999324 42 59 115
-0.12 -0.5 0.0069077765 0.037123892 -0.015569236 -0.9991894 40 62 124
-0.12 -0.49 0.0072193993 0.010421686 0.01570598 -0.9998223 46 66 129
-0.12 -0.48 0.007413571 0.002659458 -0.041280475 -0.9991441 48 68 133
-0.12 -0.47 0.006883548 -0.029389419 0.04035104 -0.99875325 45 67 133
-0.12 -0.46 0.0074807177 -0.051378295 -0.0024436084 -0.9986763 47 69 134
-0.12 -0.45 0.0077215014 0.027685551 -0.043624688 -0.9986643 45 67 131
-0.12 -0.44 0.007084576 -0.0104540745 -0.035661694 -0.99930924 43 64 125
-0.12 -0.43 0.006358464 -0.030011717 -0.006890375 -0.9995258 43 63 123
-0.12 -0.42 0.0069641066 -0.0117553305 0.1686301 -0.9856093 41 62 120
-0.12 -0.4100787 0.01 -0.04686497 -0.025918467 -0.9985649 37 54 104
-0.12098629 -0.41 0.01 -0.051741283 0.013907803 -0.99856365 37 54 104
-0.12 -0.41 0.010034567 -0.14695284 0.005058748 -0.98913056 37 54 104
-0.12 -0.4 0.010427837 -0.041197598 0.08125776 -0.9958413 34 52 101
-0.12859352 -0.39 0.01 -0.06077255 -0.0135593405 -0.9980595 36 53 104
-0.12 -0.39 0.00926378 -0.026796445 0.030772459 -0.99916714 35 51 101
-0.12 -0.39728576 0.01 -0.07302347 -0.09248859 -0.99303246 34 52 101
-0.12 -0.38 0.009695144 0.0143271275 0.043995 -0.998929 32 48 98
-0.12 -0.37174675 0.01 -0.008401105 -0.10389281 -0.994553 33 48 96
-0.120690346 -0.37 0.01 0.05198516 -0.06826732 -0.9963118 33 48 96
-0.12 -0.37 0.010095826 0.053579997 -0.103438355 -0.99319166 33 48 96
-0.12 -0.36 0.009790768 -0.010232714 0.031449266 -0.99945295 34 48 93
-0.12 -0.36765125 0.01 0.032312334 0.0036531792 -0.9994711 33 48 96
-0.12 -0.35 0.008996287 -0.033220332 0.015139099 -0.9993334 33 46 89
-0.12 -0.34 0.009137434 0.013306842 0.045810238 -0.99886155 32 44 86
-0.12 -0.33352363 0.01 0.030473636 0.056933977 -0.99791276 31 44 84
-0.1250309 -0.33 0.01 0.0743279 -0.04180851 -0.9963571 34 46 87
-0.12 -0.33 0.010661701 0.021673866 -0.06380824 -0.9977268 31 44 84
-0.12 -0.32 0.009729928 0.00059770304 -0.015098972 -0.9998858 30 43 83
-0.12 -0.323625 0.01 0.003154285 -0.004055228 -0.9999868 30 43 83
-0.12 -0.31 0.009051424 -0.014125055 0.024547266 -0.99959886 34 46 86
-0.12 -0.3 0.009297866 0.016828695 0.02421468 -0.9995651 30 45 87
-0.12 -0.2934768 0.01 0.023788659 0.034170978 -0.9991329 33 48 91
-0.12900555 -0.29 0.01 0.027580658 -0.06644198 -0.99740905 36 51 95
-0.12 -0.29 0.010531311 -0.022068521 -0.079501346 -0.99659044 33 48 91
-0.12 -0.28 0.009973936 0.013636351 -0.018634379 -0.9997334 36 53 96
-0.12 -0.28058362 0.01 0.01903116 -0.035483014 -0.9991891 36 53 96
-0.12 -0.27928296 0.01 0.027344821 0.04285599 -0.998707 36 53 96
-0.12297283 -0.27 0.01 0.074794814 -0.07615178 -0.994287 40 55 101
-0.12 -0.27 0.01043831 -0.023530273 -0.12696601 -0.99162793 40 55 101
-0.12 -0.26 0.008658221 -0.019249227 -0.030782295 -0.9993407 41 55 104
-0.12 -0.2682071 0.01 -0.038459655 -0.17170025 -0.98439825 40 55 101
-0.12 -0.25 0.009667787 0.00044713754 0.04675227 -0.99890643 42 59 111
-0.12832691 -0.24 0.01 -0.048178155 -0.056206595 -0.9972561 41 58 114
-0.12 -0.24 0.009125093 -0.018426351 -0.018494597 -0.9996592 42 58 111
-0.12 -0.23 0.009375691 -0.023820974 0.05430262 -0.99824035 42 57 109
-0.12 -0.22 0.009246297 0.0118456045 -0.032544505 -0.9994001 38 53 105
-0.12 -0.21 0.009259131 0.031079028 0.022555484 -0.9992624 37 52 101
-0.12 -0.20313571 0.01 0.043862406 0.047089092 -0.9979272 36 50 97
-0.12576514 -0.2 0.01 0.06665695 -0.04531512 -0.9967464 42 58 106
-0.12 -0.2 0.010512724 -0.027930807 -0.096493624 -0.99494165 36 50 97
-0.12 -0.19 0.00933078 -0.0322528 0.04966592 -0.998245 33 47 93
-0.12 -0.1968385 0.01 -0.04246602 -0.069701225 -0.99666363 36 50 97
-0.12 -0.18 0.009992979 0.012268441 -0.14879267 -0.9887923 31 45 90
-0.12 -0.17 0.009241287 -0.002073898 0.058150467 -0.9983057 34 47 88
-0.12 -0.16 0.009808134 0.055138335 -0.050679315 -0.9971917 37 49 88
-0.12 -0.15 0.009218427 0.023029558 0.10137261 -0.99458194 36 48 86
-0.12 -0.14504848 0.01 0.12351502 0.28133708 -0.9516268 36 48 86
-0.120459326 -0.14 0.02 0.89880186 0.17132246 -0.40348953 40 45 70
-0.12 -0.14046821 0.02 0.13352971 0.8383805 -0.52847695 40 45 70
-0.12 -0.14 0.020841371 0.3849935 0.41057524 -0.82656395 40 45 70
-0.12096245 -0.13 0.02 0.4693766 0.2108524 -0.8574537 36 42 66
-0.12 -0.13 0.02087581 0.45213178 0.014187301 -0.8918383 36 42 66
-0.12 -0.12 0.03 0.29278678 -0.035248157 -0.95552784 30 37 68
-0.12 -0.12 0.03 0.37139067 1.0308162e-15 -0.9284767 30 37 68
-0.12 -0.11 0.04 0.4472136 0.8944272 -1.4895205e-15 28 35 62
-0.12 -0.11 0.05 0.8944272 0.4472136 -4.965068e-16 32 36 61
-0.12 -0.11 0.05 0.124034725 0.99227786 0.0 32 36 61
-0.12 -0.11 0.06 0.77151674 0.15430336 -0.6172134 41 44 67
-0.12 -0.11 0.06 0.48507124 0.7276069 -0.48507124 41 44 67
-0.12 -0.11 0.06 0.16439898 1.0951173e-15 -0.9863939 41 44 67
-0.12 -0.1 0.05 1.0 8.3266727e-16 -5.551115e-16 29 35 62
-0.12 -0.1 0.06 0.9863939 0.16439898 0.0 40 43 68
-0.12 -0.1 0.07 0.70710677 1.9626156e-15 -0.70710677 41 44 67
-0.12 -0.1 0.07 0.8574929 5.7120503e-16 -0.5144958 41 44 67
-0.12 -0.1 0.07 0.31622776 5.26625e-16 -0.9486833 41 44 67
-0.12 -0.09 0.07 0.4472136 3.3100454e-16 -0.8944272 37 38 57
-0.12 -0.08 0.08 0.5144958 1.5232134e-15 -0.8574929 40 41 55
-0.12 -0.08 0.08 0.31622776 1.05325e-15 -0.9486833 40 41 55
-0.12 -0.07 0.09 0.31622776 0.9486833 -1.05325e-15 48 44 50
-0.12 -0.07 0.09 0.9284767 0.37139067 -4.1232648e-16 48 44 50
-0.12 -0.07 0.1 0.80178374 0.26726124 -0.5345225 43 39 46
-0.12 -0.07 0.1 0.6859943 0.5144958 -0.5144958 43 39 46
-0.12 -0.07 0.1 0.5547002 9.279191e-16 -0.8320503 43 39 46
-0.12009594 -0.06 0.11 0.6462378 0.08689594 -0.7581727 40 35 41
-0.12 -0.060089186 0.11 0.5308177 0.015255212 -0.84734875 40 35 41
-0.12 -0.06 0.11008921 0.5360425 0.04780436 -0.8428364 40 35 41
-0.12 -0.06 0.27 0.9838699 1.3328004e-08 0.17888543 57 42 29
-0.12 -0.06 0.27 0.6602334 0.644029 0.38641745 57 42 29
-0.12 -0.06 0.27 0.6279881 -0.15262207 0.76311034 57 42 29
-0.12 -0.06 0.28 0.9263671 0.16843039 -0.33686078 66 46 26
-0.12 -0.06 0.28 0.69814545 0.6792155 -0.22640516 66 46 26
-0.12 -0.06 0.28 0.66776973 0.38297415 -0.6382902 66 46 26
-0.12100777 -0.05 0.12 0.5806498 0.30013993 -0.7568103 47 41 46
-0.12 -0.050892867 0.12 -0.356173 0.34226534 -0.8694799 47 41 46
-0.12 -0.05 0.12089289 0.09588858 0.16107243 -0.9822734 47 41 46
-0.12 -0.05 0.18 0.9804924 0.10922465 -0.1634154 43 35 38
-0.12 -0.05 0.18 0.95144665 1.0252256e-15 0.30781373 43 35 38
-0.12 -0.05 0.18 0.5861034 0.06477809 0.80764264 43 35 38
-0.12 -0.05 0.18 0.732227 0.030317364 -0.6803855 43 35 38
-0.12 -0.06 0.27 0.7501524 -0.61396915 0.24558766 57 42 29
-0.12 -0.05 0.28 0.42857143 -0.28571427 0.85714287 62 43 24
-0.12 -0.05 0.28 0.74535596 -0.29814243 0.5962848 62 43 24
-0.12 -0.05 0.29 0.8164966 0.4082483 -0.4082483 64 46 30
-0.12 -0.05 0.29 0.9363822 0.085125655 -0.34050262 64 46 30
-0.12 -0.05 0.29 0.65094453 0.39056674 -0.65094453 64 46 30
-0.12 -0.05 0.31 0.9230769 -0.3076923 -0.23076923 67 47 32
-0.12 -0.05 0.31 0.91132236 0.39056674 -0.13018891 67 47 32
-0.12 -0.05 0.31 0.6172134 -0.15430336 0.77151674 67 47 32
-0.12 -0.05 0.31 0.5976143 -0.35856858 -0.71713716 67 47 32
-0.12 -0.04329666 0.13 -0.32604066 0.71491987 -0.61853623 42 37 44
-0.12 -0.04 0.13360299 -0.11070808 0.52426183 -0.8443301 42 37 44
-0.12129402 -0.04 0.16 0.8633356 0.25665584 0.43448755 45 38 42
-0.12 -0.041294023 0.16 0.8412651 0.3243884 0.43248725 45 38 42
-0.12 -0.04 0.15868914 0.70854723 0.07615205 0.7015424 45 38 42
-0.12160481 -0.04 0.17 0.985997 0.1654832 -0.020620776 43 33 34
-0.12 -0.04160477 0.17 0.7904752 0.6112777 0.03858095 43 33 34
-0.12117916 -0.04 0.18 0.8336757 0.5501611 0.04803787 46 41 44
-0.12 -0.04149803 0.19 0.80031353 0.5863927 -0.12506741 46 40 41
-0.12 -0.04 0.2 0.74676186 0.21032041 -0.6309612 46 40 41
-0.12 -0.04 0.2 0.20196626 0.8490777 -0.48813593 46 40 41
-0.12 -0.04 0.2 0.24638306 6.455986e-16 -0.96917254 46 40 41
-0.12 -0.04 0.28 0.8 2.220446e-16 0.6 57 39 18
-0.12 -0.04 0.28 0.4472136 0.0 0.8944272 57 39 18
-0.12 -0.04 0.29 0.9899495 0.14142135 -4.710277e-16 56 38 19
-0.12 -0.04 0.3 0.76249284 -0.45749572 -0.45749572 74 53 27
-0.12 -0.04 0.3 0.94345635 -0.104828484 -0.31448546 74 53 27
-0.12 -0.05 0.31 0.70710677 -0.70710677 0.0 67 47 32
-0.12 -0.04 0.3 0.6666667 -0.33333334 -0.6666667 74 53 27
-0.12 -0.04 0.32 0.67671555 -0.29002094 0.67671555 74 53 34
-0.12 -0.04 0.32 0.97618705 -0.21693046 0.0 74 53 34
-0.12 -0.04 0.32 0.80178374 -0.5345225 0.26726127 74 53 34
-0.12 -0.04 0.32 0.70710677 4.710277e-16 -0.70710677 74 53 34
-0.12 -0.03276825 0.14 -0.0091896085 0.8270032 -0.5621221 41 40 54
-0.12480694 -0.03 0.14 0.3197738 0.88378066 -0.3415794 41 40 54
-0.12211571 -0.03 0.15 0.5327452 0.8459609 -0.023080196 38 37 52
-0.12 -0.031870957 0.15 0.66329336 0.74715894 -0.04237235 38 37 52
-0.12 -0.03 0.2 0.8334373 -0.00671944 -0.5525731 47 37 34
-0.12 -0.03 0.2 0.5725036 0.0 -0.8199022 47 37 34
-0.12 -0.03 0.28 0.6859943 -0.5144958 0.5144958 58 41 25
-0.12 -0.03 0.28 0.4082483 -0.4082483 0.8164966 58 41 25
-0.12 -0.03 0.29 1.0 1.8503717e-16 0.0 59 36 16
-0.12 -0.03 0.3 0.8944272 0.0 -0.4472136 76 52 26
-0.12 -0.03 0.3 0.6401844 0.0 -0.7682213 76 52 26
-0.12 -0.03 0.32 0.9525793 -0.27216554 0.13608277 78 55 33
-0.12 -0.03 0.32 0.56568545 -0.42426407 0.70710677 78 55 33
-0.12 -0.03 0.32 0.6882472 -0.22941573 -0.6882472 78 55 33
-0.12 -0.02 0.2 0.7063051 -0.047604695 -0.7063051 49 39 36
-0.12 -0.02 0.2 0.64761984 3.1723107e-16 -0.7619636 49 39 36
-0.12 -0.03 0.28 0.3487429 -0.81373346 0.46499053 58 41 25
-0.12 -0.02 0.29 0.43836945 -0.28422388 0.8526717 70 50 26
-0.12 -0.02 0.29 0.5144958 -0.5144958 0.6859943 70 50 26
-0.12 -0.02 0.3 0.80178374 -0.5345225 -0.26726124 69 48 25
-0.12 -0.02 0.3 0.43301198 -0.28504395 -0.8551319 69 48 25
-0.12 -0.03 0.32 0.6172134 -0.77151674 -0.15430336 78 55 33
-0.12 -0.01 0.21 0.70710677 1.3084103e-15 -0.70710677 63 45 27
-0.12 -0.01 0.21 0.71568775 1.5508048e-15 -0.6984204 63 45 27
-0.12 -0.01 0.21 0.646272 4.2360954e-16 -0.7631071 63 45 27
-0.12 -0.01 0.29 0.0 -0.8944272 0.44721362 68 48 22
-0.12 -0.01 0.29 0.21957701 -0.4362994 0.8725988 68 48 22
-0.12 -0.01 0.29 0.2750757 -0.6798284 -0.6798284 68 48 22
-0.12 -0.02 0.3 0.32444283 -0.8111071 -0.48666427 69 48 25
-0.12 0.0 0.21 0.70710677 3.1401849e-16 -0.70710677 62 46 30
-0.12 -0.01 0.29 0.2264554 -0.79259396 0.56613845 68 48 22
-0.12 0.01 0.22 0.59025246 1.7923855e-15 -0.8072187 64 45 26
-0.12 0.01 0.22 0.44716048 0.015410245 -0.89432096 64 45 26
-0.12 0.02 0.22033314 0.62887895 0.122964494 -0.7677181 63 44 30
-0.12 0.03 0.22273295 0.5944911 0.122634806 -0.79469556 64 45 28
-0.12943153 0.04 0.23 -0.2373926 0.5189319 -0.82119083 41 29 22
-0.12 0.04 0.22526617 0.30721486 0.42295262 -0.85248464 44 35 33
-0.12 0.04374504 0.23 0.31288832 0.7998485 -0.5121946 44 35 33
-0.12 0.05 0.23705852 0.43488657 0.55350477 -0.71028596 43 35 34
-0.12 0.05694641 0.24 0.361965 0.43479377 -0.82458216 47 36 33
-0.12 0.06 0.24200119 0.48120075 0.45855358 -0.7471107 47 36 33
-0.12 0.07 0.24977684 0.46512577 0.5651871 -0.6813381 50 37 34
-0.12 0.0702639 0.25 0.49477908 0.6186052 -0.6103452 50 37 34
-0.12 0.08 0.25651792 0.32668713 0.33122045 -0.88519406 46 37 34
-0.12 0.09 0.25784868 0.11254468 0.18147328 -0.97693455 53 44 41
-0.12 0.1 0.2585441 0.051888973 -0.007781518 -0.99862254 42 32 26
-0.12 0.11 0.2577954 0.1132621 -0.07330541 -0.9908572 41 33 28
-0.12 0.12 0.25798327 0.07775552 0.03934719 -0.9961957 50 40 32
-0.12 0.13 0.13 0.9173631 0.3718275 -0.14208896 63 43 31
-0.12 0.13 0.25722808 -0.009139867 -0.3467914 -0.93789774 41 36 37
-0.1220855 0.14 0.25 -0.4258583 -0.35124484 -0.8338296 29 26 30
-0.12 0.14 0.24889484 -0.19618836 -0.2657427 -0.9438702 29 26 30
-0.12 0.13772362 0.25 -0.013399709 -0.3370941 -0.9413756 29 26 30
-0.12 0.15 0.24512213 0.029934436 -0.21780263 -0.97553366 28 26 32
-0.12 0.16 0.24424355 0.18825963 -0.3058617 -0.9332775 49 36 28
-0.125 0.17 0.16 0.9863939 -0.16439898 0.0 44 35 38
-0.125 0.17 0.18 0.99014753 -0.09901475 0.09901475 52 45 47
-0.12592301 0.17 0.23 0.54880494 -0.6752718 -0.49276888 37 35 42
-0.12 0.17 0.23374705 0.22438684 -0.62053174 -0.75139266 42 32 25
-0.12 0.16426896 0.24 0.18017581 -0.739183 -0.64895695 49 36 28
-0.12 0.18 0.105 0.30442953 -0.10147651 -0.9471141 58 43 33
-0.12 0.17 0.11 -0.5070926 -0.8451542 0.16903085 47 34 27
-0.12 0.18 0.115 0.32888868 -0.0939682 0.93968195 65 51 41
-0.125 0.18 0.13 0.9868349 -0.1345684 -0.08971226 57 47 47
-0.125 0.18 0.14 0.9284767 -0.37139067 0.0 49 38 39
-0.12 0.18 0.18 0.55934143 -0.8180237 -0.13406886 49 38 37
-0.12 0.17849785 0.19 0.6227498 -0.7806028 -0.053310458 48 39 38
-0.12 0.1785427 0.2 0.52568364 -0.8506802 2.7565042e-05 38 34 37
-0.12 0.1785257 0.21 0.54300416 -0.83511263 -0.087939575 29 27 35
-0.12 0.17685181 0.22 0.38301063 -0.89670825 -0.22184934 36 31 37
-0.12 0.17369835 0.23 0.27911514 -0.82430637 -0.49255836 42 32 25
-0.125 0.19 0.05 0.9636241 -0.2223748 -0.14824986 34 28 27
-0.125 0.19 0.06 0.92797977 -0.3569153 -0.10707459 38 32 31
-0.12333332 0.19 0.07 0.9912279 -0.13216372 0.0 55 40 28
-0.125 0.19 0.08 0.9079594 -0.41905817 0.0 41 32 31
-0.12 0.19 0.09 0.91132236 -0.13018891 -0.39056674 51 37 30
-0.12 0.19 0.1 0.86824316 -0.49613893 6.8853106e-16 57 47 41
-0.12 0.19 0.11 0.4472136 -0.8944272 -6.620091e-16 53 41 33
-0.12 0.19 0.14 0.8320503 -0.5547002 -9.237613e-16 54 42 38
-0.12 0.19 0.15 0.7525767 -0.6585046 0.0 55 43 39
-0.12 0.19 0.16 0.6154575 -0.6154575 -0.49236596 55 40 35
-0.12 0.19 0.16 0.1717795 -0.57259834 -0.8016377 55 40 35
-0.12 0.18 0.17 0.27472112 -0.96152395 -7.625043e-17 48 36 35
-0.12 0.18 0.18 0.2964157 -0.95268047 -0.06736207 49 38 37
-0.12118103 0.2 0.02 0.7045211 -0.1357853 -0.6965719 27 23 27
-0.12 0.2 0.03 0.9072604 -0.3310429 0.25940156 32 25 24
-0.125 0.2 0.04 0.8293188 -0.55448544 0.0691099 29 24 24
-0.12 0.2 0.05 0.76822126 -0.5121475 -0.38411063 47 36 26
-0.12 0.2 0.06 0.70710677 -0.70710677 0.0 54 41 30
-0.12 0.2 0.07 0.70710677 -0.70710677 0.0 55 40 29
-0.12 0.2 0.08 0.7682213 -0.6401844 0.0 59 46 37
-0.12 0.2 0.09 0.56568545 -0.70710677 -0.42426404 53 41 34
-0.12 0.2 0.09 0.5076731 -0.6092077 -0.6092077 53 41 34
-0.12 0.19 0.1 0.5547002 -0.8320503 3.0792046e-16 57 47 41
-0.12 0.2 0.11 0.74535596 -0.2981424 0.5962848 69 56 48
-0.12 0.2 0.11 0.68041384 -0.27216554 0.68041384 69 56 48
-0.12 0.2 0.12 0.73521465 -0.66169316 -0.14704293 61 45 37
-0.12 0.2 0.12 0.3292928 -0.7683498 -0.54882133 61 45 37
-0.12 0.19 0.13 0.27472112 -0.96152395 1.5250086e-16 54 41 38
-0.12 0.2 0.14 0.49236596 -0.86164045 0.123091504 50 40 36
-0.12 0.2 0.14 0.39056674 -0.65094453 0.65094453 50 40 36
-0.12 0.2 0.14 0.22941573 -0.6882472 -0.6882472 50 40 36
-0.12 0.19 0.15 0.70710677 -0.70710677 -3.925231e-16 55 43 39
-0.12 0.19 0.16 0.22941573 -0.6882472 -0.6882472 55 40 35
-0.121224254 0.21 0.02 0.716023 -0.49816126 -0.48902595 29 25 29
-0.12 0.21 0.03 0.55840427 -0.7385885 -0.377719 31 25 24
-0.12 0.21 0.03 0.30304578 -0.80812204 -0.5050763 31 25 24
-0.12 0.205 0.04 0.5548766 -0.80709326 -0.20177332 37 29 26
-0.12 0.2 0.05 0.6882472 -0.6882472 -0.22941573 47 36 26
-0.12 0.2 0.06 0.70710677 -0.70710677 0.0 54 41 30
-0.12 0.2 0.07 0.70710677 -0.70710677 0.0 55 40 29
-0.12 0.2 0.08 0.70710677 -0.70710677 0.0 59 46 37
-0.12 0.2 0.09 0.6666667 -0.6666667 -0.33333334 53 41 34
-0.12 0.21 0.1 -3.3644837e-16 -0.70710677 0.70710677 49 37 29
-0.12 0.21 0.1 0.70710677 -0.56568545 0.42426407 49 37 29
-0.12 0.21 0.1 -0.17407766 -0.69631064 0.69631064 49 37 29
-0.12 0.21 0.11 0.42640144 -0.6396021 -0.6396021 62 48 39
-0.12 0.21 0.11 0.1717795 -0.57259834 -0.8016377 62 48 39
-0.12 0.2 0.12 0.3577709 -0.8944272 -0.26832816 61 45 37
-0.12 0.2 0.14 0.6172134 -0.77151674 -0.15430336 50 40 36
-0.12 0.22 0.012792262 0.1352798 -0.38460377 -0.91311514 24 23 31
-0.12 0.21138161 0.02 0.42759433 -0.7770752 -0.46186286 29 25 29
-0.12 0.21 0.03 0.27829137 -0.83487415 -0.47490954 31 25 24
-0.12 0.21 0.1 0.42857143 -0.85714287 0.28571427 49 37 29
-0.12 0.21 0.11 0.24806947 -0.62017363 -0.7442084 62 48 39
-0.12 0.23 0.0134863 0.013112185 -0.018015288 -0.99975175 29 27 31
-0.12 0.24 0.012521602 -0.070035875 0.03460539 -0.99694407 30 27 30
-0.12 0.25 0.013201091 -0.031200318 -0.06303765 -0.9975233 32 29 29
-0.12 0.26 0.012191944 0.061239097 -0.1467575 -0.98727506 31 28 28
-0.12150372 0.27 0.01 -0.11642109 -0.04233303 -0.99229735 25 25 28
-0.12 0.27 0.009740452 -0.019847086 -0.024929073 -0.99949217 25 25 28
-0.12 0.26765236 0.01 -0.12370715 0.0019029428 -0.99231696 25 25 28
-0.12 0.28 0.00899214 0.021026574 -0.06157651 -0.9978809 23 24 28
-0.12 0.29 0.00951825 -0.034158543 0.03463667 -0.9988161 20 22 27
-0.12 0.3 0.009112102 0.018926766 -0.058488403 -0.9981086 21 23 29
-0.12 0.31 0.0086296 0.01703356 0.031466827 -0.99935967 20 22 28
-0.12 0.32 0.00861823 -0.046833307 -0.12732138 -0.9907552 20 22 31
-0.12 0.33 0.006771514 0.007124404 -0.113128714 -0.9935548 18 22 32
-0.12 0.34 0.006207847 0.13944162 0.09609549 -0.98555654 18 21 32
-0.12 0.35 0.008458519 -0.08053949 0.022887014 -0.99648863 22 23 30
-0.12 0.36 0.0063666464 -0.119839974 -0.12068152 -0.9854311 19 21 31
-0.12 0.37 0.005708149 -0.025016766 -0.024934659 -0.999376 18 20 30
-0.12 0.38 0.006340917 0.023487985 0.021594934 -0.99949086 18 20 30
-0.12 0.39 0.0057948274 0.013950149 -0.007979026 -0.99987084 17 19 30
-0.12 0.4 0.006305162 0.006028515 0.0188849 -0.9998035 17 18 30
-0.12 0.41 0.006230874 0.00029304196 0.018491551 -0.999829 17 18 30
-0.12 0.42 0.006435846 0.022235092 -0.023364997 -0.9994797 18 19 30
-0.12 0.43 0.005478623 -0.013353484 -0.033530794 -0.99934846 18 19 30
-0.12 0.44 0.0059159333 -0.00025566452 0.045389123 -0.9989694 19 19 31
-0.12 0.45 0.006286036 0.012723926 0.0070690867 -0.9998941 15 18 31
-0.12 0.46 0.0065128105 -0.030847253 -0.0043692063 -0.9995146 15 17 31
-0.12 0.47 0.0060547655 -0.01068185 0.011871039 -0.9998725 14 17 30
-0.12 0.48 0.00647726 0.021448893 -0.017197091 -0.99962205 13 16 29
-0.12 0.49 0.0062850458 -0.025065796 -0.0036086529 -0.99967927 13 16 29
-0.12 0.5 0.0060078227 0.050661355 0.011522744 -0.9986494 13 16 29
-0.12 0.51 0.006569664 -0.036668435 0.04692151 -0.99822533 14 16 29
-0.12 0.52 0.0067303283 0.0274196 -0.03303815 -0.9990779 15 16 28
-0.12 0.53 0.006397101 -0.045163605 -0.03698924 -0.9982946 14 16 29
-0.12 0.54 0.0060096662 0.013592821 0.0055398955 -0.9998923 14 16 30
-0.12 0.55 0.006674564 0.004895205 0.03545693 -0.9993592 14 16 31
-0.12 0.56 0.006214285 0.0018948558 -0.03128247 -0.9995088 13 16 31
-0.12 0.57 0.006313058 0.007636133 -0.006441917 -0.9999501 13 16 31
-0.12 0.58 0.005895263 -0.04208142 -0.0036329133 -0.9991076 14 18 31
-0.12 0.59 0.0064414064 0.040783275 0.018556343 -0.99899566 14 18 30
-0.12 0.6 0.0061839903 -0.000120200915 -0.024654496 -0.999696 18 21 33
-0.12 0.61 0.0060504247 0.0355182 0.048705015 -0.99818146 17 21 33
-0.12 0.62 0.007031902 -0.04872893 0.030946106 -0.9983325 17 21 33
-0.12 0.63 0.0065058237 0.0072763613 -0.04522278 -0.9989504 17 22 36
-0.12 0.64 0.0059530083 0.035123207 -0.064237624 -0.99731636 17 22 37
-0.12 0.65 0.0054634367 -0.022380024 0.010454355 -0.9996949 16 21 39
-0.12 0.66 0.0061777197 0.053521376 0.06913657 -0.99617046 17 23 41
-0.12 0.67 0.00654822 -0.029956685 0.00047022727 -0.99955106 16 21 39
-0.12 0.68 0.0062662642 0.046851162 -0.014564194 -0.9987957 17 23 41
-0.12 0.69 0.0062391316 -0.030011866 -0.028020106 -0.9991567 18 24 41
-0.12 0.7 0.00576399 -0.05176354 0.014892097 -0.9985483 15 20 36
-0.12 0.71 0.0066154976 0.025726661 0.02109669 -0.9994464 16 20 33
-0.12 0.72 0.0060939486 -0.03330945 -0.0027945808 -0.9994412 16 20 32
-0.12 0.73 0.0062610977 0.06380075 0.0044819666 -0.9979526 17 20 33
-0.12 0.74 0.0067792702 0.02905078 0.08364922 -0.9960717 15 19 33
-0.11 -0.75 0.0074590854 0.17834607 -0.051186986 -0.9826355 65 87 143
-0.11 -0.74 0.0070122825 0.09350505 -0.08325885 -0.9921314 67 90 148
-0.11 -0.73 0.0053260517 0.05358574 -0.10545128 -0.99297965 71 101 169
-0.11 -0.72 0.0046320264 0.05047824 0.031696048 -0.99822205 64 92 166
-0.11 -0.71 0.005963483 0.0034805795 0.041744206 -0.99912226 55 83 159
-0.11 -0.7 0.005483756 -0.019858211 -0.06699092 -0.997556 46 75 152
-0.11 -0.69 0.0046262373 -0.047629505 0.019826338 -0.9986683 36 63 139
-0.11 -0.68 0.006030162 -0.064294174 0.10997296 -0.99185294 32 60 136
-0.11 -0.67 0.007055572 -0.12931159 0.04967142 -0.9903592 34 58 124
-0.11 -0.66 0.007427424 -0.08346311 0.05284624 -0.9951086 32 58 127
-0.11 -0.65 0.0075494917 0.039833695 -0.017098028 -0.99906003 34 60 129
-0.11 -0.64 0.007465184 0.016513055 0.011151111 -0.99980146 33 58 128
-0.11 -0.63 0.0075220596 0.0043094517 -0.07096381 -0.9974696 47 72 142
-0.11 -0.62 0.006595416 -0.038020942 -0.029219383 -0.99884963 44 67 132
-0.11 -0.61 0.00697393 0.007499689 0.03651019 -0.9993051 41 62 123
-0.11 -0.6 0.0073307683 0.021660747 0.0844104 -0.9961956 39 59 116
-0.11 -0.59 0.008350041 -0.038914774 -0.04353809 -0.9982936 29 46 97
-0.11 -0.58 0.0071485015 0.011952736 -0.06525951 -0.9977967 31 47 97
-0.11 -0.57 0.006874367 0.04089935 -0.009159015 -0.9991213 39 51 99
-0.11 -0.56 0.006849204 0.0071342974 0.041732572 -0.99910337 41 53 102
-0.11 -0.55 0.007211451 -0.051944766 0.054638706 -0.9971541 39 53 103
-0.11 -0.54 0.008117515 -0.025982207 -0.11952466 -0.9924912 38 53 105
-0.11 -0.53 0.0071227974 0.008110067 0.008220889 -0.9999333 37 53 109
-0.11 -0.52 0.007351324 0.0061442275 0.007709897 -0.9999514 43 58 110
-0.11 -0.51 0.007301775 0.006868172 -0.008372078 -0.99994135 44 60 114
-0.11 -0.5 0.007635461 0.0027865095 0.041680373 -0.9991271 42 62 120
-0.11 -0.49 0.0076907845 0.012076684 -0.05972387 -0.9981419 34 59 124
-0.11 -0.48 0.0070804777 -0.019442752 0.013501316 -0.9997198 35 60 126
-0.11 -0.47 0.006992095 0.041975107 -0.037057452 -0.9984312 40 63 128
-0.11 -0.46 0.006767842 0.0044724816 0.019890148 -0.99979216 43 65 129
-0.11 -0.45 0.007679277 -0.012667019 0.015511092 -0.99979943 45 67 130
-0.11 -0.44 0.0071131457 -0.019572837 -0.0061289794 -0.99978966 43 65 127
-0.11 -0.43 0.007061709 0.05266975 -0.003765128 -0.9986049 43 65 125
-0.11 -0.42 0.0071246666 -0.011549389 0.031097623 -0.9994496 42 64 122
-0.11989422 -0.41 0.01 -0.089219734 -0.005521007 -0.99599665 37 54 104
-0.11 -0.41 0.0076632868 -0.022740986 0.0992965 -0.994798 42 63 121
-0.118230626 -0.4 0.01 -0.062761694 0.090597674 -0.993908 34 52 101
-0.11 -0.4 0.008841741 -0.049912676 -0.0030902121 -0.9987488 40 58 107
-0.11 -0.39 0.009059756 0.012419996 0.053939596 -0.99846697 35 53 102
-0.11 -0.38 0.009862939 0.019913878 0.010813708 -0.9997432 35 51 100
-0.11 -0.37590417 0.01 0.020802028 -5.6287357e-05 -0.99978364 35 51 100
-0.11 -0.37 0.010302121 -0.0044484516 -0.10899355 -0.9940325 33 48 96
-0.11 -0.36 0.009061697 -0.023116358 0.024431977 -0.9994342 31 46 91
-0.11 -0.36831322 0.01 -0.018283576 -0.11728806 -0.99292964 33 48 96
-0.11 -0.35 0.009291708 0.05205 0.024747508 -0.9983378 31 45 89
-0.11 -0.34 0.009598912 0.037728358 -0.05118421 -0.9979763 34 46 88
-0.112954065 -0.33 0.01 -0.015362157 -0.021727748 -0.9996459 34 46 86
-0.11 -0.33 0.009798131 -0.008629652 -0.04348489 -0.9990168 34 46 86
-0.11 -0.32 0.008459741 -0.039980944 0.037610374 -0.99849236 33 45 86
-0.11 -0.31 0.009218495 0.04525408 0.0714176 -0.99641937 32 45 85
-0.11 -0.30507648 0.01 0.01995768 0.08785017 -0.9959338 32 45 85
-0.115299374 -0.3 0.01 0.09204309 -0.008892457 -0.9957153 30 45 87
-0.11 -0.3 0.011137033 -0.016212417 -0.08072085 -0.99660486 32 47 87
-0.11 -0.29 0.009471219 -0.03562881 0.0037787915 -0.99935794 34 49 91
-0.11569927 -0.29 0.01 -0.068642944 -0.026794959 -0.9972814 33 48 91
-0.11 -0.29385185 0.01 -0.005688404 -0.06828632 -0.99764955 34 49 91
-0.11 -0.28 0.009551119 -0.0018427746 -0.0026800842 -0.9999947 35 50 93
-0.11786682 -0.27 0.01 -0.081930645 -0.012705135 -0.99655706 40 55 101
-0.11 -0.27 0.008960321 -0.029638836 0.054570843 -0.99806994 37 54 98
-0.11 -0.26 0.009957927 0.06253 -0.028306592 -0.99764156 39 55 101
-0.11 -0.25 0.009299997 -0.014041359 -0.0031180962 -0.9998965 39 55 102
-0.11 -0.24 0.009089383 -0.009660107 -0.027914144 -0.99956363 39 55 105
-0.11 -0.23 0.00853854 -0.027264858 0.056960605 -0.9980041 40 54 103
-0.11 -0.22189708 0.01 -0.007988309 0.055567198 -0.998423 35 50 98
-0.113282055 -0.22 0.01 0.104309745 0.009158843 -0.99450266 35 50 98
-0.11 -0.22 0.010635491 0.013043139 0.05535849 -0.9983814 35 50 98
-0.11447426 -0.21 0.01 0.08516069 -0.04491274 -0.9953545 36 50 96
-0.11 -0.21 0.010879726 -0.021603763 -0.07983629 -0.99657387 36 50 96
-0.11 -0.2 0.0092656305 -0.032317065 0.034612846 -0.9988781 33 47 92
-0.11686329 -0.2 0.01 -0.070508026 -0.033856966 -0.99693644 36 50 97
-0.11 -0.20552464 0.01 -0.031220572 -0.076048486 -0.99661523 36 50 96
-0.11 -0.19 0.0096866 -0.0049891896 0.0049188617 -0.99997544 34 49 91
-0.11 -0.18 0.009476449 -0.016790299 -0.030954517 -0.99937975 32 47 90
-0.11 -0.17 0.00982162 0.039370913 0.045784064 -0.9981752 30 45 88
-0.11 -0.16581462 0.01 0.03746955 0.04606462 -0.99823546 30 45 88
-0.11572575 -0.16 0.01 0.052509457 0.0027446854 -0.99861664 37 49 88
-0.11 -0.16 0.010355848 -0.07642603 0.06895581 -0.994688 38 48 83
-0.11574146 -0.15 0.01 0.1630682 0.104661375 -0.9810478 36 48 86
-0.11 -0.15 0.011559177 0.16100532 0.07709847 -0.98393756 38 47 80
-0.11 -0.14 0.013517294 -0.04419875 0.46481213 -0.8843055 39 48 79
-0.11904873 -0.14 0.02 -0.59594184 0.30169833 -0.7441985 40 45 70
-0.11 -0.1308279 0.02 0.13916975 0.8110624 -0.56816334 34 39 68
-0.11 -0.13 0.03 0.108040065 0.99268436 -0.05389879 34 40 65
-0.11 -0.13 0.03 0.8964844 0.44244438 -0.023638563 34 40 65
-0.11 -0.13 0.04 0.77151674 0.15430336 -0.6172134 35 40 65
-0.11 -0.13 0.04 0.6859943 0.5144958 -0.5144958 35 40 65
-0.11 -0.13 0.04 0.5144958 9.520084e-16 -0.8574929 35 40 65
-0.11 -0.12 0.04 0.9701425 0.24253562 -8.078059e-16 34 38 62
-0.11 -0.12 0.05 0.7808688 1.2137139e-15 -0.62469506 33 39 64
-0.11 -0.12 0.05 0.8574929 5.7120503e-16 -0.5144958 33 39 64
-0.11 -0.12 0.05 0.5144958 9.520084e-16 -0.8574929 33 39 64
-0.11 -0.11 0.06 7.4014867e-16 2.5905202e-15 -1.0 37 41 66
-0.11 -0.11 0.06 0.0 1.1102229e-15 -1.0 37 41 66
-0.11 -0.1 0.07 0.4472136 1.7377739e-15 -0.8944272 42 42 59
-0.11 -0.1 0.07 0.31622776 1.05325e-15 -0.9486833 42 42 59
-0.11 -0.09 0.08 0.6 1.5543122e-15 -0.8 37 39 57
-0.11 -0.09 0.08 0.70710677 7.8504623e-16 -0.70710677 37 39 57
-0.11 -0.09 0.08 0.5547002 9.237613e-16 -0.8320503 37 39 57
-0.11 -0.08 0.09 0.70710677 1.0467283e-15 -0.70710677 39 38 47
-0.11 -0.08 0.09 0.6 1.7763568e-15 -0.8 39 38 47
-0.11 -0.08 0.09 0.5144958 9.520084e-16 -0.8574929 39 38 47
-0.11 -0.07 0.1 0.4472136 0.8944272 -1.9860274e-15 39 36 45
-0.11 -0.07 0.11 0.6666667 0.33333334 -0.6666667 41 36 44
-0.11 -0.07 0.11 6.184897e-16 0.9284767 -0.37139067 41 36 44
-0.11 -0.07 0.11 0.21693043 1.0837852e-15 -0.97618705 41 36 44
-0.11130711 -0.07 0.26 0.9619605 0.18908875 0.19717352 63 50 44
-0.11 -0.07270363 0.26 0.9243164 0.3374488 0.17823437 63 50 44
-0.11 -0.07 0.25669783 0.9314128 -0.006249362 0.36391088 63 50 44
-0.111689456 -0.07 0.27 0.96254927 0.27088985 0.0108459005 61 42 29
-0.11 -0.07198845 0.27 0.8718516 0.48874572 -0.03166031 61 42 29
-0.11134838 -0.07 0.28 0.9524496 0.2830419 -0.1128143 64 45 28
-0.11 -0.07150963 0.28 0.8712054 0.4899978 -0.03005469 64 45 28
-0.11028378 -0.07 0.29 0.9405996 0.10805017 -0.32186577 66 46 35
-0.11 -0.07060379 0.29 0.90966433 0.37894195 -0.17004068 66 46 35
-0.11 -0.07 0.2906728 0.9282514 0.057779238 -0.36743826 66 46 35
-0.11 -0.06 0.12 0.70604354 1.127743e-15 -0.70816845 48 44 51
-0.11 -0.06 0.12 -0.0135013675 3.3303654e-15 -0.99990886 48 44 51
-0.11 -0.06 0.12 0.19611613 4.354653e-16 -0.9805807 48 44 51
-0.11 -0.06 0.19 0.892722 0.41299903 0.18021978 54 45 41
-0.11 -0.06 0.19 0.94559187 0.32438752 0.025075907 54 45 41
-0.11 -0.06 0.19 0.8021295 0.08668621 0.59082466 54 45 41
-0.11 -0.06 0.19 0.8319483 0.34464225 -0.4348376 54 45 41
-0.11005592 -0.06 0.26 0.7113062 -0.23293349 0.6631632 65 45 24
-0.11 -0.06 0.25994036 0.82838273 -0.06661584 0.5561874 65 45 24
-0.11054985 -0.06 0.29 0.9886878 0.13137722 -0.07236327 67 47 32
-0.11 -0.06085495 0.3 0.9505347 0.30982667 -0.022162296 72 52 33
-0.11036472 -0.06 0.3 0.9764579 0.21539062 0.0116985915 72 52 33
-0.11085274 -0.06 0.31 0.9494431 0.12680894 -0.28718862 84 60 35
-0.11 -0.060963057 0.31 0.9217605 0.34369648 -0.179528 84 60 35
-0.11 -0.06 0.31088156 0.79879624 -0.0012257922 -0.60160047 84 60 35
-0.11 -0.05 0.12 0.34100252 5.218394e-16 -0.9400624 44 40 48
-0.11213665 -0.05 0.17 0.50697285 0.8039927 0.31076413 40 34 33
-0.11 -0.05213661 0.17 0.7471931 0.60095376 0.28382578 40 34 33
-0.11 -0.05 0.16692986 0.62238526 0.65173143 0.4334544 40 34 33
-0.11 -0.05262947 0.18 0.79939616 0.59197605 0.10261622 53 40 35
-0.11268364 -0.05 0.19 0.6975662 0.49493766 -0.51811016 50 42 40
-0.11 -0.05 0.19283289 0.6941241 0.13619496 -0.70685405 50 42 40
-0.11 -0.05 0.26 0.67499614 -0.53674394 0.5062471 71 52 33
-0.11 -0.05 0.26 0.68765426 -0.38490608 0.6156127 71 52 33
-0.11 -0.05 0.27 0.9996547 -0.026276192 4.4393587e-16 70 48 28
-0.11 -0.05 0.3 0.99139875 -0.13087578 7.3378247e-16 83 56 22
-0.11 -0.05 0.32 0.96484476 0.26282054 -4.590826e-16 79 56 34
-0.11 -0.05 0.32 0.83530545 0.54978615 -1.6734205e-15 79 56 34
-0.11 -0.05 0.33 0.74653226 0.2932762 -0.5972258 87 64 42
-0.11 -0.05 0.33 0.5492436 0.74470913 -0.3791302 87 64 42
-0.11 -0.05 0.33 0.51416636 0.44127813 -0.7354635 87 64 42
-0.11 -0.04 0.13 -0.15660289 2.1930494e-15 -0.98766166 47 41 46
-0.11 -0.04 0.13 0.26629847 1.498187e-15 -0.9638906 47 41 46
-0.115026325 -0.04 0.15 0.72320825 0.49318093 0.4834691 43 39 51
-0.11 -0.044989165 0.15 0.41542166 0.8346635 0.36160988 47 43 50
-0.11 -0.04 0.14501084 0.49796554 0.3878244 0.77564335 47 43 50
-0.11 -0.04738312 0.16 0.53781736 0.8154818 0.21387368 42 34 33
-0.11 -0.041354217 0.2 0.6953854 0.2796855 -0.66197824 60 42 25
-0.11 -0.04 0.20134278 0.7073684 0.16590223 -0.6871 60 42 25
-0.11 -0.05 0.26 0.705937 -0.65761644 0.2630466 71 52 33
-0.11 -0.04 0.27 0.68832123 -0.22939351 0.68818057 69 47 28
-0.11 -0.04 0.27 0.37139067 -0.55708605 0.74278134 69 47 28
-0.11 -0.04 0.31 1.0 2.9605947e-15 -3.7007433e-16 91 60 23
-0.11 -0.04 0.33 0.9805807 0.19611613 -8.709306e-16 84 57 25
-0.11 -0.04 0.34 0.59771466 1.1125946e-15 -0.80170894 81 60 42
-0.11 -0.04 0.34 0.6401844 -4.2644848e-16 -0.7682213 81 60 42
-0.11 -0.04 0.34 0.3124213 1.7577487e-16 -0.94994366 81 60 42
-0.11 -0.035 0.14 0.30353457 0.85277945 0.42501062 47 40 44
-0.11 -0.03 0.20429686 0.7795937 0.27588093 -0.56224847 61 42 26
-0.11 -0.03 0.27 0.57735026 -0.57735026 0.57735026 63 44 26
-0.11 -0.03 0.27 0.60834587 -0.4083409 0.68056816 63 44 26
-0.11 -0.03 0.31 0.99981755 0.019102484 2.7750512e-16 71 50 26
-0.11 -0.03 0.33 0.9992529 0.03864698 -1.1093936e-15 78 54 24
-0.11 -0.03 0.34 0.7808688 1.7338771e-16 -0.62469506 71 50 26
-0.11 -0.03 0.34 0.3496823 2.2446662e-16 -0.93686837 71 50 26
-0.11 -0.02208374 0.21 0.7120068 0.32204163 -0.6239675 57 37 21
-0.11146126 -0.02 0.21 0.63619983 0.3926264 -0.6641493 57 37 21
-0.11 -0.02 0.21167341 0.7823318 0.2525772 -0.56935203 57 37 21
-0.11 -0.03 0.27 0.7042982 -0.6734743 0.22449143 63 44 26
-0.11016277 -0.02 0.28 0.49310824 -0.47071826 0.7316205 56 36 17
-0.11 -0.02 0.27983725 0.7792735 -0.19354546 0.5960478 56 36 17
-0.11018749 -0.02 0.31 0.99976397 0.020032888 0.0084086815 64 44 28
-0.11035332 -0.02 0.32 0.99984545 0.0064955833 0.016335947 84 59 34
-0.11051365 -0.02 0.33 0.9983704 -0.052134223 -0.023207633 81 56 27
-0.11 -0.02 0.34 0.9568481 0.29002997 -0.018010555 80 56 28
-0.11 -0.020070419 0.35 0.81435347 0.028225776 -0.5796824 79 56 28
-0.11004707 -0.02 0.35 0.9417703 -0.23769358 -0.23784529 79 56 28
-0.11 -0.02 0.3500734 0.72458684 -0.11963452 -0.6787205 79 56 28
-0.11031914 -0.01 0.22 0.62954414 0.4676448 -0.6204696 49 34 28
-0.11 -0.0103726955 0.22 0.6675411 0.34717003 -0.6586819 49 34 28
-0.11 -0.01 0.22031912 0.71872246 0.19716649 -0.66675586 49 34 28
-0.110065006 -0.01 0.28 0.880525 -0.33955812 0.3307204 58 38 22
-0.11 -0.01 0.27987084 0.81005776 -0.3016441 0.50280935 58 38 22
-0.11022602 -0.01 0.3 0.9998499 -0.014476917 0.009516137 68 46 23
-0.11039059 -0.01 0.31 0.9993282 -0.03286525 -0.01621899 83 59 29
-0.11 -0.01 0.32 0.9998021 -0.0017062401 -0.019819522 80 53 26
-0.110003434 -0.01 0.33 0.9322135 -0.3618872 0.0039580395 80 53 26
-0.1101788 -0.01 0.34 0.9289371 -0.17667556 -0.3253638 81 56 26
-0.11 -0.01 0.3401853 0.8065744 -0.3018188 -0.50827473 81 56 26
-0.11 -0.019855041 0.35 0.8105771 -0.3760478 -0.44894642 79 56 28
-0.115 0.0 0.22 0.92075515 0.27551553 -0.27622655 64 40 21
-0.11 0.0 0.23 0.7290141 0.34031844 -0.5939039 68 49 37
-0.11 0.0 0.23 0.7857072 0.18818334 -0.5892803 68 49 37
-0.11 0.0 0.23 0.5544217 -0.00642167 -0.83221114 68 49 37
-0.11 -0.009870835 0.28 0.86001766 -0.4836629 0.16260329 58 38 22
-0.11 0.0 0.29 0.8868939 -0.26257417 0.3800974 63 40 20
-0.11 0.0 0.29 0.7630262 -0.20680185 0.61239207 63 40 20
-0.11 0.0 0.3 0.999967 -0.008128971 0.0 70 49 24
-0.11 0.0 0.31 0.9999703 -0.0077084 0.0 86 60 26
-0.11 0.0 0.32 0.7422839 -0.2576548 -0.61856985 85 58 28
-0.11 0.0 0.32 0.5901273 -0.41556728 -0.692137 85 58 28
-0.11 -0.009993133 0.33 0.8054722 -0.59259826 0.006469114 80 53 26
-0.11 0.0 0.34 0.6192654 -0.29178172 0.72895396 76 53 29
-0.11 0.0 0.34 0.84241307 -0.51181424 0.16848265 76 53 29
-0.11 0.0 0.34 0.50178283 -0.020596633 -0.86474836 76 53 29
-0.11 0.01 0.23 0.64676166 0.404226 -0.64676166 60 41 28
-0.11 0.01 0.23 0.123091504 0.49236596 -0.86164045 60 41 28
-0.11 0.01 0.29 0.30151135 -0.30151135 0.90453404 60 40 21
-0.11 0.01 0.29 0.44360697 -0.12674484 0.88721395 60 40 21
-0.11 0.01 0.3 1.0 0.0 0.0 69 49 24
-0.11 0.01 0.31 1.0 0.0 0.0 85 58 25
-0.11 0.01 0.32 0.9863939 0.16439898 0.0 82 55 23
-0.11 0.01 0.33 1.0 1.3877788e-15 -2.7755576e-16 70 44 21
-0.11 0.01 0.33 1.0 0.0 0.0 70 44 21
-0.11 0.01 0.34 0.9284767 0.37139067 0.0 76 51 24
-0.11 0.01 0.35 0.4472136 0.8944272 -9.930136e-16 67 47 25
-0.11 0.01 0.35 0.86824316 0.49613893 0.0 67 47 25
-0.11 0.01 0.36 0.54944223 0.13736056 -0.8241634 54 36 18
-0.11 0.01 0.36 0.62469506 0.4685213 -0.62469506 54 36 18
-0.11 0.01 0.36 0.28734788 3.1902024e-16 -0.95782626 54 36 18
-0.115 0.02 0.23 0.91911876 0.06256409 -0.3889813 66 43 23
-0.11 0.02 0.24 0.5995172 0.35793272 -0.71586543 54 39 30
-0.11 0.02 0.24 0.86561877 0.16665265 -0.47215572 54 39 30
-0.11 0.02 0.24 1.8622863e-08 0.019624129 -0.9998074 54 39 30
-0.11 0.02 0.29 0.78446454 -0.19611613 0.5883484 71 47 22
-0.11 0.02 0.29 0.15617377 -0.31234753 0.9370426 71 47 22
-0.11 0.02 0.3 1.0 0.0 0.0 63 44 26
-0.11 0.02 0.31 1.0 0.0 0.0 74 48 21
-0.11 0.02 0.32 1.0 0.0 0.0 74 47 21
-0.11 0.02 0.33 0.8479983 -0.5299989 0.0 73 50 26
-0.11 0.02 0.34 1.0 0.0 0.0 77 53 27
-0.11 0.02 0.35 1.0 0.0 0.0 73 52 27
-0.11 0.02 0.36 0.6401844 0.0 -0.7682213 41 28 19
-0.11 0.02 0.36 0.31622776 0.0 -0.9486833 41 28 19
-0.11523067 0.03 0.23 0.921025 0.13974373 -0.36357212 54 42 42
-0.11037773 0.03 0.24 0.7326151 0.3089314 -0.60649526 58 43 33
-0.11 0.03 0.24037772 0.19124153 0.3374016 -0.92173034 58 43 33
-0.11 0.03 0.26 0.74535596 0.5962848 0.2981424 66 47 27
-0.11 0.03 0.26 -0.15617377 0.9370426 0.31234753 66 47 27
-0.11 0.03 0.26 0.19611613 4.354653e-16 0.9805807 66 47 27
-0.11 0.03 0.27 0.8944272 0.4472136 0.0 81 60 36
-0.11 0.03 0.27 2.4835268e-08 1.0 0.0 81 60 36
-0.11 0.03 0.28 0.78446454 0.19611613 -0.5883484 78 57 40
-0.11 0.03 0.28 0.55708605 0.74278134 -0.37139067 78 57 40
-0.11 0.02 0.29 0.48666427 -0.8111071 0.32444283 71 47 22
-0.11 0.03 0.28 0.4082483 -0.40824828 -0.81649655 78 57 40
-0.11 0.03 0.3 0.6882472 -0.22941573 0.6882472 69 49 30
-0.11 0.03 0.3 0.62469506 -0.4685213 0.62469506 69 49 30
-0.11 0.03 0.31 1.0 0.0 0.0 68 45 22
-0.11 0.03 0.32 0.7442084 -0.24806947 -0.62017363 72 48 22
-0.11 0.03 0.32 0.5701375 -0.42268363 -0.7044727 72 48 22
-0.11 0.02 0.33 0.70710677 -0.70710677 1.5700924e-16 73 50 26
-0.11 0.03 0.34 0.60730773 -0.5187755 0.6017053 83 57 28
-0.11 0.03 0.34 0.5155161 -0.68446064 0.5155161 83 57 28
-0.11 0.03 0.35 0.99866366 0.051680516 0.0 80 54 25
-0.11 0.03 0.36 0.59929824 0.04835109 -0.79906434 64 43 21
-0.11 0.03 0.36 0.3411888 0.024368409 -0.9396789 64 43 21
-0.11616085 0.04 0.23 0.7812632 0.5835929 -0.22146596 44 35 33
-0.11535652 0.04 0.24 0.91834766 0.1702611 -0.35727957 55 42 36
-0.11 0.04 0.24506254 0.22913978 0.28095105 -0.9319664 52 43 44
-0.11 0.04 0.26 0.7808688 0.0 0.62469506 64 45 27
-0.11 0.04 0.26 -0.124034725 6.88531e-16 0.99227786 64 45 27
-0.11 0.04 0.27 1.0 0.0 0.0 74 55 36
-0.11 0.04 0.28 0.80178374 -0.5345225 -0.26726124 80 58 40
-0.11 0.04 0.28 0.4815434 -0.2407717 -0.84270096 80 58 40
-0.11 0.04 0.3 0.6396021 -0.42640144 0.6396021 68 47 29
-0.11 0.04 0.3 0.56568545 -0.42426407 0.70710677 68 47 29
-0.11 0.04 0.31 0.86824316 -0.49613893 0.0 70 48 23
-0.11 0.04 0.32 0.9295294 0.35818404 0.08763124 70 47 23
-0.11 0.038370512 0.33 0.96041495 -0.10260415 -0.25898948 73 47 20
-0.111629486 0.04 0.33 0.93564844 0.1662821 -0.31130734 73 47 20
-0.11 0.03 0.34 0.7552064 -0.5817297 0.30208257 83 57 28
-0.11 0.04 0.33201736 0.76480603 0.08127501 -0.6391135 73 47 20
-0.11 0.04 0.3488155 0.79188925 0.08219334 0.605108 72 47 23
-0.11093792 0.04 0.35 0.84248674 -0.102103494 0.5289527 72 47 23
-0.11107956 0.04 0.36 0.8725918 0.48567107 0.052030206 64 40 17
-0.11 0.038325883 0.37 0.7068056 0.37549284 -0.59952563 56 40 25
-0.111674115 0.04 0.37 0.866514 0.10974173 -0.4869396 56 40 25
-0.11 0.04 0.37177846 0.4551938 0.15654524 -0.8765228 56 40 25
-0.11751499 0.05 0.24 0.75415653 0.4411785 -0.48642516 43 35 34
-0.11 0.05 0.25 0.67682254 0.2325943 -0.69843477 59 46 38
-0.11 0.05 0.25 0.89249694 0.19256096 -0.40788412 59 46 38
-0.11 0.05 0.26 0.97898376 0.20393813 0.0 64 48 36
-0.11 0.05 0.27 0.74535596 -0.2981424 -0.5962848 61 48 37
-0.11 0.05 0.27 0.421637 -0.52704626 -0.7378648 61 48 37
-0.11 0.04 0.28 0.25400025 -0.8890009 -0.38100037 80 58 40
-0.11 0.04 0.3 0.6882472 -0.6882472 0.22941573 68 47 29
-0.11 0.04 0.31 0.70710677 -0.70710677 6.582425e-16 70 48 23
-0.11 0.05 0.31715584 0.65477324 0.4128326 0.63312024 73 48 20
-0.113301545 0.05 0.32 0.64692867 0.44757566 0.61738104 73 48 20
-0.11527905 0.05 0.33 0.8364023 0.538052 -0.10455247 60 43 28
-0.11 0.05 0.33860204 0.80282706 0.35007712 -0.48261237 61 45 32
-0.11391586 0.05 0.35 0.9733748 0.060404047 0.22111729 74 51 29
-0.11 0.05 0.3418029 0.8245438 0.30073768 0.479254 61 45 32
-0.11496494 0.05 0.36 0.9062298 0.42180687 0.028749317 65 42 23
-0.11455761 0.05 0.37 0.7354004 0.3274615 -0.59325814 49 33 20
-0.11 0.05 0.3725838 0.45679733 0.15490642 -0.87597954 49 33 20
-0.113009 0.06 0.25 0.7308804 0.40342692 -0.5505094 61 44 34
-0.11013672 0.06 0.26 0.9702669 0.17427641 -0.16795817 55 41 30
-0.11 0.06 0.27 0.8556046 0.004717409 -0.51760846 52 38 26
-0.11 0.06 0.27 0.4472136 0.0 -0.8944272 52 38 26
-0.11866188 0.06 0.32 0.9612201 0.062261388 0.26866227 63 44 26
-0.11 0.06 0.31268197 0.43485942 0.1477399 0.88829625 79 57 32
-0.11920944 0.06 0.33 0.99333614 0.10659473 -0.043828376 61 43 28
-0.11 0.052160263 0.34 0.84744316 0.41754913 -0.327861 61 45 32
-0.11491596 0.06 0.34 0.85746735 0.31999344 -0.40293166 69 44 26
-0.111481056 0.06 0.35 0.701901 0.37741354 0.6040646 71 49 31
-0.11830353 0.06 0.36 0.9917866 0.034420677 0.12318521 64 42 23
-0.11817756 0.06 0.37 0.8846791 0.073010884 -0.46044794 73 49 27
-0.11 0.06 0.37500015 0.28054103 0.09888492 -0.9547348 41 36 45
-0.11978489 0.07 0.25 0.6849936 0.4939183 -0.5355637 50 37 34
-0.111396596 0.07 0.26 0.79054517 0.32908753 -0.5164686 55 42 33
-0.11 0.07 0.27 0.80245125 -0.47758254 -0.3577526 58 43 30
-0.11 0.07 0.27 0.42857143 -0.28571427 -0.85714287 58 43 30
-0.11878307 0.07 0.32 0.95852995 -0.0803481 0.27343106 69 56 46
-0.11 0.07 0.3124897 0.5090617 -0.018391415 0.86053354 76 55 35
-0.119665906 0.07 0.33 0.99741375 -0.07114471 -0.010212084 66 47 31
-0.118167266 0.07 0.34 0.98459494 -0.0036452913 -0.17481287 76 53 34
-0.115217015 0.07 0.35 0.9821438 0.1627576 0.09435838 52 36 26
-0.118251994 0.07 0.36 0.99795216 -0.0150954705 0.062157877 47 35 30
-0.118066214 0.07 0.37 0.90513974 -0.12991022 -0.40477815 58 40 24
-0.11 0.07 0.37538883 0.2570807 0.002125598 -0.9663876 47 40 47
-0.113721885 0.08 0.26 0.4845463 0.00024612498 -0.8747656 59 44 34
-0.11 0.08 0.26276395 0.32020608 -0.31350175 -0.8939713 59 44 34
-0.11 0.07 0.27 0.3163215 -0.79080373 -0.52399445 58 43 30
-0.117314644 0.08 0.32 0.9388596 -0.14039992 0.31437322 68 50 33
-0.11 0.08 0.31326264 0.50786567 -0.012571338 0.8613445 75 57 41
-0.11820644 0.08 0.33 0.9918241 -0.12695667 0.012923981 53 39 27
-0.1175111 0.08 0.34 0.9877529 -0.11815917 -0.10189525 48 34 27
-0.116008036 0.08 0.35 0.9944149 -0.091146395 0.053209554 54 38 32
-0.11772469 0.08 0.36 0.97860867 -0.20468165 -0.020747436 47 38 35
-0.11554317 0.08 0.37 0.895175 -0.20675182 -0.39486134 51 41 42
-0.11 0.08 0.3742997 0.2952034 -0.22572535 -0.92838734 67 43 21
-0.110943034 0.09 0.26 0.24283195 -0.09279172 -0.96562016 47 38 36
-0.11 0.09 0.26072723 0.4137606 -0.17499454 -0.89340866 47 38 36
-0.11 0.09 0.31 0.75724494 -0.24169809 0.60676366 76 52 33
-0.11 0.09 0.31 0.7755193 -0.22477415 0.58995456 76 52 33
-0.11 0.09 0.31 0.6401844 2.8429899e-16 0.7682213 76 52 33
-0.11519569 0.09 0.32 0.9661616 -0.19498187 0.16886027 66 47 31
-0.11615734 0.09 0.33 0.97456867 -0.22309148 0.021122366 53 39 29
-0.115557745 0.09 0.34 0.9300815 -0.35706154 -0.08634499 54 38 27
-0.11419597 0.09 0.35 0.9256569 -0.36220106 -0.10940596 48 34 29
-0.11346279 0.09 0.36 0.88425624 -0.43766186 -0.16292031 57 38 23
-0.11 0.09 0.36730292 0.75157803 -0.5324659 -0.38937196 58 44 39
-0.11 0.08842232 0.37 0.4909442 -0.47174284 -0.7324155 58 44 39
-0.11 0.1 0.25845164 0.033550277 0.1071241 -0.9936794 54 39 25
-0.11 0.09123352 0.26 0.2189579 -0.28720182 -0.93250877 47 38 36
-0.11 0.1 0.31 0.7819189 -0.21140486 0.58643913 75 52 34
-0.11 0.1 0.31 0.6401844 0.0 0.7682213 75 52 34
-0.11 0.1 0.32 0.9676801 -0.10652952 0.22857523 63 45 31
-0.11339603 0.1 0.33 0.91137916 -0.4113852 0.012255116 62 48 37
-0.11222103 0.1 0.34 0.9707592 -0.22851305 -0.07354123 58 42 32
-0.11166778 0.1 0.35 0.88683856 -0.4275503 -0.17526591 48 34 25
-0.11 0.1 0.3536792 0.8355404 -0.38283813 -0.39409035 48 34 25
-0.11 0.095826566 0.36 0.88716745 -0.37436357 -0.26978853 47 37 38
-0.11 0.10492188 0.26 0.23048587 0.26333782 -0.93676543 54 39 25
-0.11448742 0.11 0.26 0.487337 -0.09766608 -0.86773497 54 38 27
-0.11 0.11 0.26365107 0.3633796 0.18099393 -0.91389084 54 38 27
-0.11 0.11 0.31 0.8111071 -0.32444283 0.48666427 71 51 35
-0.11 0.11 0.31 0.45749572 -0.45749572 0.76249284 71 51 35
-0.11 0.11 0.32 0.8967513 -0.4424204 0.010064324 65 49 35
-0.11019367 0.11 0.33 0.9444222 -0.32848743 0.012758285 55 42 34
-0.110339016 0.11 0.34 0.8695713 -0.4573117 -0.18631075 60 45 35
-0.11 0.11 0.34072727 0.6467202 -0.5730284 -0.50338006 60 45 35
-0.11 0.10304978 0.35 0.8762023 -0.41126144 -0.2512639 48 34 25
-0.11241711 0.12 0.26 0.4532176 0.05643543 -0.88961166 58 41 31
-0.11 0.12 0.27 0.812178 -0.19392687 -0.55023557 64 49 40
-0.11 0.12 0.27 0.8474148 -0.09019145 -0.52321476 64 49 40
-0.11 0.12 0.27 0.62469506 5.201631e-16 -0.7808688 64 49 40
-0.11 0.11 0.31 0.42857143 -0.85714287 0.28571427 71 51 35
-0.11 0.11 0.32 0.6345706 -0.7725971 0.020346344 65 49 35
-0.11 0.11038002 0.33 0.80121654 -0.5980852 0.018602727 55 42 34
-0.11 0.11065575 0.34 0.7447197 -0.5937002 -0.30481586 60 45 35
-0.110720135 0.13 0.26 0.54118043 -0.18939453 -0.8193006 51 39 32
-0.11 0.13 0.27 0.8368418 -0.053095642 -0.5448639 52 42 35
-0.11 0.13 0.27 0.6401844 2.8429899e-16 -0.7682213 52 42 35
-0.11257824 0.14 0.25 0.24851035 -0.38907498 -0.88705313 41 32 30
-0.11097057 0.14 0.26 0.6893987 -0.71997094 -0.07982042 53 39 32
-0.11 0.14 0.27 0.9869969 0.1561743 -0.038036242 50 41 35
-0.11 0.14 0.28 0.8320503 1.5396022e-15 -0.5547002 50 43 43
-0.11 0.14 0.28 0.9486833 1.7554168e-16 -0.3162278 50 43 43
-0.11 0.14 0.28 0.4472136 6.620091e-16 -0.8944272 50 43 43
-0.11 0.15 0.2454685 0.09807292 -0.34141722 -0.93478125 35 29 33
-0.11 0.14149368 0.25 0.13875946 -0.8041243 -0.57803977 41 32 30
-0.11 0.14080338 0.26 0.46825373 -0.883189 -0.026751224 53 39 32
-0.11 0.15 0.27 0.114547215 -0.7173009 0.68728334 51 42 38
